0.8444219 0.7579544 0.4205716
0.2589168 0.5112747 0.4049341
0.7837986 0.3033127 0.4765970
0.5833820 0.9081129 0.5046869
0.2818378 0.7558042 0.6183690
0.2505063 0.9097463 0.9827855
0.8102172 0.9021660 0.3101476
0.7298317 0.8988383 0.6839839
0.4721427 0.1007012 0.4341718
0.6108870 0.9130111 0.9666064
0.4770098 0.8653099 0.2604923
0.8050278 0.5486993 0.0140417
0.7197047 0.3988235 0.8248450
0.6681532 0.0011428 0.4935779
0.8676028 0.2439109 0.3252044
0.8704712 0.1910671 0.5675107
0.2386159 0.9675403 0.8031795
0.4479696 0.0804458 0.3200546
0.5079406 0.9328338 0.1090578
0.5512672 0.7065614 0.5474409
0.8144669 0.5402836 0.9638385
0.6031856 0.5876171 0.4449890
0.5962869 0.3849011 0.5756510
0.2903295 0.1893913 0.1867295
0.6127732 0.6566594 0.4765310
0.0898244 0.7576039 0.8767704
0.9233810 0.8424602 0.8981731
0.9230824 0.5405999 0.3912961
0.7052834 0.2756341 0.8116287
0.8494860 0.8950390 0.5898012
0.9497649 0.5796950 0.4505631
0.6602454 0.9962578 0.9169412
0.7933251 0.0823730 0.6127831
0.4864442 0.6301473 0.8450776
0.2430356 0.7314892 0.1171343
0.2204605 0.7945830 0.3325361
0.8159131 0.1006075 0.1463585
0.6976706 0.0452341 0.5738660
0.9100160 0.5341980 0.6805891
0.0266968 0.6349999 0.6063384
0.5759529 0.3912094 0.3701399
0.9805167 0.0363920 0.0216365
0.9610313 0.1849719 0.1238952
0.2105765 0.8007466 0.9369692
0.0227826 0.4256188 0.1015002
0.2599199 0.2208293 0.6469257
0.3502940 0.1803179 0.5036365
0.0393787 0.1009212 0.9882351
0.1993558 0.3585553 0.7315983
0.8383266 0.9184821 0.1694246
0.6726406 0.9665489 0.0580509
0.6762018 0.8454246 0.3423125
0.2506873 0.5967914 0.4423140
0.1748195 0.4716254 0.4099054
0.5691127 0.5086001 0.3114460
0.3571517 0.8376612 0.2509327
0.5606002 0.0124363 0.7415744
0.3359166 0.0456965 0.2808832
0.2401304 0.9531293 0.3522256
0.2878779 0.3592012 0.9469058
0.6337479 0.6210768 0.7156194
0.3880172 0.4144180 0.6508329
0.0015242 0.1923095 0.3344017
0.2394160 0.6373994 0.3786481
0.8754234 0.5681514 0.4144064
0.4022671 0.7018296 0.4182266
0.6621959 0.0467797 0.4453522
0.2592269 0.1576866 0.5275731
0.4872656 0.5614049 0.7554848
0.8838752 0.4945827 0.3120582
0.4668922 0.8090459 0.8750163
0.8124149 0.1880013 0.9994204
0.6330888 0.0834671 0.7255544
0.9868215 0.4018168 0.6785150
0.3161771 0.2135247 0.7173241
0.0023576 0.8227314 0.5283460
0.0977843 0.1189039 0.6492654
0.8736538 0.2799827 0.9785152
0.1001807 0.8539381 0.3966962
0.0813454 0.2747138 0.4529782
0.7923415 0.8613599 0.1334206
0.5208655 0.6507832 0.3470530
0.8718638 0.2784098 0.0185743
0.0406633 0.6809968 0.5583557
0.9465026 0.9384388 0.9098512
0.0420045 0.7491348 0.7013248
0.6553619 0.7123577 0.9027102
0.6401412 0.3724493 0.5379288
0.2078441 0.5871255 0.0088971
0.1510232 0.3334084 0.7896232
0.7184994 0.3382560 0.6205381
0.0412029 0.1638605 0.9819141
0.2895309 0.3947920 0.5484843
0.2934070 0.4780647 0.2397061
0.0482564 0.1795868 0.5230502
0.0708629 0.4031691 0.3285207
0.4147216 0.0994003 0.9086576
0.4740047 0.8408483 0.9762295
0.3436516 0.4790865 0.6995953
0.4265353 0.3019031 0.7347510
0.8943998 0.9196888 0.6267420
0.3755713 0.9745605 0.6388785
0.0658347 0.0846696 0.7498696
0.0611562 0.0078510 0.3938080
0.5190037 0.4485443 0.4886188
0.5848887 0.6793026 0.4230381
0.3683315 0.9884591 0.2609165
0.7771002 0.4312210 0.3585204
0.0638579 0.8635789 0.7020041
0.9030107 0.4516118 0.6769210
0.1189103 0.3979536 0.2072320
0.0421014 0.9479614 0.2158944
0.1463545 0.1979700 0.3780320
0.5463913 0.1513344 0.9886899
0.9829892 0.1484020 0.4059069
0.6799295 0.8776566 0.4954059
0.9170467 0.3224603 0.4984409
0.4986466 0.6700682 0.2019913
0.6097706 0.2187731 0.3402203
0.9625665 0.8990080 0.8181184
0.0354683 0.1483669 0.2568819
0.7841666 0.8423333 0.5829482
0.7181317 0.8070554 0.0663591
0.0846431 0.8688953 0.0394158
0.2250907 0.0406320 0.0152851
0.8439547 0.3305944 0.1606901
0.1488195 0.6560837 0.9685983
0.5049997 0.9010905 0.5024286
0.5738725 0.6785714 0.8051100
0.7578464 0.9905326 0.7469654
0.9057807 0.2061048 0.5354163
0.5986143 0.8256966 0.4822136
0.7910402 0.3885689 0.5863885
0.8513166 0.7980595 0.6569846
0.0002407 0.1819689 0.5068578
0.2544594 0.0656208 0.8598834
0.9429470 0.3028049 0.4080732
0.8100375 0.0622588 0.6409849
0.1273208 0.2870883 0.8299407
0.0555270 0.0359338 0.4178660
0.4918310 0.8633252 0.7171887
0.6735438 0.1513738 0.9867059
0.4111402 0.6117709 0.3866830
0.0470329 0.4708892 0.1513678
0.0324655 0.6174004 0.6299663
0.1052928 0.5491438 0.3466680
0.3834141 0.7764199 0.4903197
0.8812766 0.6101197 0.4671884
0.6323126 0.3378654 0.1243238
0.6825296 0.6220374 0.7885665
0.1271091 0.9117833 0.7993412
0.9168874 0.8725347 0.6810064
0.8102508 0.5190073 0.7854891
0.1891275 0.7821141 0.4445796
0.7566162 0.4554702 0.7895587
0.0753396 0.0446409 0.9342896
0.4861651 0.9010714 0.9447833
0.6665112 0.5717968 0.2159794
0.0934762 0.8193942 0.8887721
0.7793957 0.6985024 0.4201111
0.3053116 0.1134449 0.4259702
0.5660130 0.9228806 0.9357548
0.4156412 0.0992110 0.7738187
0.7342793 0.0307008 0.4467186
0.6864181 0.0301342 0.9192824
0.9622425 0.7225428 0.0785385
0.0703295 0.3592533 0.0293775
0.3478777 0.0099642 0.9743235
0.8190067 0.0705176 0.8934351
0.2079780 0.2047908 0.6737591
0.9382623 0.1231881 0.0071846
0.3691301 0.0246500 0.6048482
0.8591756 0.1869917 0.1123910
0.3444496 0.9591715 0.1301577
0.9665193 0.3622399 0.4733704
0.2926320 0.9371268 0.9581479
0.6359157 0.1840456 0.9929518
0.1025804 0.5808494 0.1564031
0.8976753 0.9456784 0.8043903
0.3158914 0.2428387 0.7548584
0.2910595 0.4197854 0.0462557
0.1322338 0.0205496 0.0779211
0.0732111 0.4202317 0.5507772
0.7408788 0.1422835 0.4221887
0.6369660 0.0845557 0.4448112
0.3692560 0.9489319 0.0578571
0.4086262 0.4172255 0.7281805
0.3206710 0.2039903 0.2933117
0.4708875 0.9502683 0.7965170
0.2769702 0.5581816 0.6882003
0.7956572 0.4461644 0.3987769
0.7676407 0.4317165 0.2479577
0.4534470 0.9371046 0.1425675
0.4624354 0.6373035 0.4832880
0.2036399 0.0018432 0.6989917
0.6187355 0.0077766 0.2985601
0.7686343 0.6289204 0.5452081
0.1562211 0.7062940 0.4714349
0.6781787 0.7600898 0.2323627
0.7619950 0.2800884 0.9840151
0.1208316 0.8837180 0.0405471
0.2565758 0.5261019 0.5816162
0.3962350 0.1020317 0.2526081
0.2833965 0.7552229 0.9087743
0.5954099 0.0354510 0.7922365
0.3056039 0.3398904 0.5301854
0.2490470 0.9199781 0.1635548
0.4148304 0.2896919 0.5198341
0.5739818 0.6271397 0.5313758
0.4108045 0.6345940 0.4034129
0.7785503 0.7881774 0.2922542
0.3718043 0.6288109 0.1570700
0.6970319 0.3814278 0.5910625
0.1395331 0.6682584 0.3540579
0.4726656 0.4151074 0.4767152
0.6946956 0.3182402 0.6520545
0.0602221 0.3001852 0.7452097
0.0524059 0.6211422 0.0255468
0.4715289 0.8885450 0.0101101
0.5268280 0.0664568 0.8671098
0.6862965 0.7419539 0.6690076
0.0064235 0.0411779 0.6208768
0.9996851 0.8731472 0.6996858
0.7271000 0.2266870 0.7516139
0.2879241 0.1054603 0.4608949
0.3301958 0.1682554 0.4217099
0.8972010 0.4352703 0.4472919
0.7088278 0.5241619 0.1292230
0.9103924 0.4441243 0.7893377
0.3888751 0.8068460 0.3895364
0.2201595 0.1961947 0.9400346
0.5865303 0.0497933 0.3883476
0.2340293 0.0846571 0.1867559
0.0569905 0.6380736 0.1733739
0.6107799 0.6125067 0.7049237
0.5121187 0.2844240 0.8774575
0.3530711 0.4582943 0.6318794
0.5161243 0.9564683 0.9547177
0.9297599 0.9340763 0.5809601
0.4902021 0.7041168 0.2154196
0.2658720 0.0438073 0.1628575
0.0038745 0.6546276 0.1404070
0.7866793 0.6805040 0.9706758
0.3965145 0.9213919 0.4537042
0.3395037 0.1023389 0.8828322
0.7947902 0.3229290 0.4557444
0.3251435 0.0288291 0.0443525
0.3687041 0.2095913 0.5245146
0.1877850 0.2016216 0.6726679
0.7356027 0.3122321 0.8599944
0.2546392 0.3439404 0.7124804
0.0445029 0.9341835 0.0723377
0.4609311 0.7246048 0.0474685
0.8090027 0.9788933 0.4605117
0.1181236 0.0814770 0.0987304
0.7654414 0.4140128 0.9192342
0.4406398 0.0771433 0.4269356
0.7548279 0.8293384 0.0393517
0.1803894 0.4900135 0.1280855
0.8710926 0.9344609 0.3195970
0.4348437 0.5570541 0.2855058
0.5410757 0.2011850 0.2966413
0.4417836 0.6046699 0.5361650
0.2609880 0.2317879 0.1187302
0.7834936 0.0989008 0.7328850
0.2487737 0.2845570 0.7360834
0.6596208 0.7419216 0.5152831
0.8590958 0.1217939 0.6451970
0.1182443 0.7372834 0.3589047
0.6748821 0.7034839 0.6606085
0.2215580 0.8317999 0.2401361
0.5181533 0.6746458 0.2336032
0.6285117 0.2868310 0.1713824
0.8097488 0.5531228 0.3278847
0.5854309 0.0252864 0.1298229
0.3955809 0.9757566 0.5104745
0.0764562 0.7650406 0.7814439
0.7748022 0.5694980 0.6956987
0.2134579 0.7325606 0.8161740
0.7599665 0.3534624 0.5910281
0.6289894 0.9008099 0.1080139
0.8339338 0.5264356 0.3586141
0.4556029 0.0126355 0.2200736
0.6527634 0.6608493 0.4946989
0.9533259 0.4809151 0.3139437
0.8477808 0.2591583 0.6043060
0.7034189 0.8216963 0.7853688
0.3840923 0.0591803 0.0382879
0.7264604 0.9616914 0.3431654
0.4411951 0.7257980 0.6578312
0.2601066 0.6715848 0.3049024
0.3563579 0.5395133 0.7323138
0.1512162 0.0219872 0.6278300
0.0245647 0.0449632 0.2257756
0.6538769 0.0665451 0.0624058
0.9720932 0.4226529 0.8924289
0.2165243 0.4352132 0.3580351
0.1769355 0.3288132 0.9867958
0.7473090 0.3826683 0.4092844
0.2637409 0.5313367 0.7356369
0.6866466 0.4626498 0.0419390
0.9215078 0.4089338 0.3902989
0.0031101 0.1382272 0.8688534
0.5139346 0.7324348 0.1481679
0.3300510 0.8401366 0.8206585
0.2467943 0.0219753 0.8064670
0.1688440 0.7876814 0.6836592
0.1683148 0.0784886 0.9276494
0.5978784 0.6205102 0.4575118
0.1500710 0.6019699 0.2524729
0.8058947 0.7327190 0.0272672
0.9324230 0.0363160 0.0896193
0.2927346 0.1508091 0.2361451
0.3558095 0.7354997 0.4047114
0.2698398 0.4923132 0.3925932
0.3107642 0.9005417 0.5504485
0.9773275 0.7729124 0.5704993
0.2624466 0.6868437 0.4559177
0.7213877 0.4037788 0.4960050
0.0206838 0.7399585 0.0342735
0.6807254 0.5820037 0.7759176
0.2897776 0.6861108 0.2070980
0.5292720 0.3402804 0.9784546
0.9718666 0.2089697 0.5660382
0.3294427 0.9685382 0.9245259
0.5861459 0.7200845 0.6813248
0.3533556 0.9163616 0.8994535
0.3306585 0.7473949 0.0090921
0.8163591 0.5648693 0.9523067
0.3631931 0.6257131 0.3230024
0.7827854 0.6007030 0.9874710
0.0010128 0.1407587 0.0436014
0.1258478 0.9293853 0.9486083
0.4804125 0.9466894 0.8183876
0.7786177 0.7472820 0.1876546
0.5488773 0.4238792 0.9497880
0.1738335 0.1698588 0.6588618
0.1574018 0.1100537 0.5039232
0.7966610 0.6050457 0.7547540
0.2657585 0.2849628 0.4287036
0.9908479 0.7179183 0.9462540
0.5378705 0.5545599 0.9900903
0.1899883 0.7825904 0.7915138
0.8447416 0.7500527 0.1553330
0.6611276 0.9237032 0.5632852
0.3609415 0.9495201 0.5615987
0.4116364 0.6141335 0.8041250
0.2283021 0.0156920 0.5290949
0.9413574 0.6802580 0.6309080
0.6278151 0.4969897 0.7309193
0.2491944 0.8917543 0.2744727
0.9449450 0.9264967 0.0779245
0.4481797 0.7440363 0.4496541
0.5088990 0.8068239 0.7049922
0.9580042 0.1644860 0.9235593
0.9279863 0.6347489 0.9403908
0.2526856 0.8817873 0.7734793
0.6096890 0.0906292 0.0301344
0.0109695 0.2505581 0.7623524
0.3866250 0.7754467 0.6256425
0.3892619 0.8801466 0.0384172
0.4653130 0.8298523 0.1268135
0.7104876 0.3281158 0.0243013
0.4737249 0.5216927 0.0415863
0.5659194 0.3474338 0.0044932
0.1907734 0.1108107 0.5406220
0.0431202 0.9281326 0.8450620
0.9452976 0.3148010 0.9052674
0.9843124 0.7647314 0.2750826
0.6708893 0.5956632 0.4042033
0.3060979 0.0598482 0.1253825
0.1339562 0.4808929 0.6418934
0.7640685 0.0467138 0.8237599
0.0434712 0.5549468 0.7441478
0.6312214 0.9496787 0.3446984
0.5858834 0.0827991 0.5597966
0.8132988 0.2016045 0.2609645
0.7004056 0.2538820 0.2592455
0.9355153 0.9985430 0.1551984
0.9001624 0.5527265 0.0386011
0.5855027 0.6415497 0.0337957
0.7576919 0.8178001 0.0716432
0.6483999 0.4565475 0.2387213
0.4586704 0.1593897 0.3336659
0.6552073 0.4764856 0.5559201
0.5434428 0.8205942 0.3433828
0.8129621 0.0799871 0.4277330
0.3523201 0.4515806 0.8335098
0.5123994 0.9872466 0.8614607
0.1188467 0.3168915 0.0227255
0.7337534 0.0192008 0.8859385
0.1933429 0.4138363 0.0620393
0.3112549 0.3895150 0.0522310
0.7675507 0.7113497 0.3578836
0.8351926 0.0774218 0.0540064
0.3549803 0.9018413 0.7564677
0.6723177 0.5627357 0.8037655
0.4122267 0.0306886 0.8024043
0.1904934 0.3876588 0.3576093
0.1233656 0.3507844 0.1770869
0.6160138 0.6534344 0.0136466
0.4564759 0.5540527 0.8716630
0.4960313 0.0804504 0.0517239
0.8621091 0.7907294 0.8584479
0.2622427 0.6479974 0.0957180
0.8265731 0.3336129 0.9551472
0.4713826 0.0330677 0.9090559
0.6255321 0.2870813 0.0368039
0.3766864 0.1568606 0.5482803
0.1468837 0.1746143 0.9208695
0.6401200 0.2425814 0.8788963
0.6247158 0.9455993 0.4829168
0.8879008 0.6784438 0.0441686
0.2402905 0.2815764 0.1700167
0.2381870 0.2260401 0.8783437
0.4628988 0.8765118 0.1379979
0.5649185 0.0134677 0.9303014
0.0056371 0.3899076 0.8015860
0.9998816 0.0195097 0.8240855
0.5100880 0.0381820 0.7771193
0.1119024 0.6114742 0.7783252
0.6735909 0.3798743 0.0264416
0.4362640 0.9136945 0.3329234
0.2479587 0.1378308 0.5102525
0.5333483 0.0730482 0.4077585
0.6586815 0.9660507 0.4315411
0.4360353 0.4711340 0.2250335
0.3948376 0.6452647 0.3970592
0.5813757 0.8355823 0.9979676
0.8850397 0.3717966 0.0217271
0.6116046 0.4745507 0.2370171
0.0403041 0.3215702 0.7980713
0.9641190 0.1066601 0.8776394
0.0487177 0.7134758 0.0267957
0.4210497 0.8702308 0.3931081
0.9245643 0.7131951 0.6041843
0.1613790 0.3404958 0.4110962
0.5902049 0.9960382 0.2837097
0.5035629 0.9334479 0.3454208
0.6286048 0.7661315 0.6302697
0.7534307 0.1956930 0.9573377
0.1768978 0.5836812 0.2960426
0.6344230 0.2911104 0.4312134
0.6822225 0.2690688 0.7278759
0.3468777 0.1321561 0.6131287
0.1657580 0.4305774 0.3983974
0.0761688 0.7107698 0.6808236
0.7777950 0.5449131 0.5539168
0.1692330 0.2074639 0.2282495
0.5253035 0.8189826 0.3569741
0.8818720 0.7358783 0.7164471
0.3351721 0.1184775 0.9627905
0.8546106 0.4088680 0.8632182
0.8992171 0.3424736 0.5015615
0.3317898 0.6951575 0.9121673
0.9845441 0.7437791 0.3052424
0.8804933 0.9926196 0.3465262
0.9487124 0.5115464 0.9646354
0.9958560 0.8129421 0.6834370
0.1540145 0.0049173 0.5954709
0.7044599 0.9355380 0.5171199
0.6968466 0.6473560 0.2049201
0.6443001 0.9817212 0.1111850
0.6885432 0.6143051 0.3758547
0.7933478 0.0104859 0.8924116
0.8173640 0.4807048 0.1081392
0.4526286 0.5842529 0.2538835
0.4865315 0.7757288 0.9227318
0.5616450 0.8272418 0.0779332
0.8563680 0.9208146 0.1680014
0.8274874 0.8495662 0.8786589
0.5171395 0.6082542 0.2080832
0.7081315 0.4050173 0.0211691
0.1342671 0.3882180 0.8851798
0.5649423 0.9162570 0.9294838
0.0867950 0.5882154 0.3345280
0.5067951 0.4555248 0.4799433
0.1018058 0.8331601 0.4902800
0.6449876 0.4726788 0.1810184
0.5410006 0.1595397 0.8521793
0.8316040 0.1436388 0.0688440
0.0684919 0.3932440 0.9530414
0.5561404 0.2655266 0.2296488
0.1108732 0.1410712 0.8118633
0.1386335 0.8640616 0.8229981
0.1368088 0.5587248 0.0070553
0.8620361 0.5582771 0.7553404
0.4903453 0.6904220 0.9312391
0.5595458 0.8747055 0.3430454
0.0975325 0.0051446 0.2266503
0.8385868 0.3114955 0.2246161
0.4956304 0.9469041 0.5089784
0.3408717 0.0775018 0.5736669
0.2262570 0.3674991 0.3811624
0.7581843 0.2316288 0.9358922
0.7423881 0.4811195 0.8804745
0.3591680 0.3843399 0.1293691
0.7785561 0.4011927 0.5002530
0.4709687 0.6561818 0.3739384
0.9158613 0.4319223 0.3592140
0.4008781 0.7662957 0.9930566
0.8665146 0.4797275 0.2913593
0.4459871 0.3440156 0.2435321
0.1869409 0.9558757 0.4993052
0.1099749 0.3839066 0.3887169
0.5135345 0.9800413 0.9766335
0.5658941 0.6180915 0.6756291
0.5022222 0.4866781 0.3145239
0.6839217 0.0918953 0.3171452
0.8909786 0.2273782 0.9675824
0.9841697 0.5753827 0.0404360
0.0934782 0.2003016 0.3268116
0.1131082 0.7972108 0.3641546
0.2337337 0.0436939 0.3826719
0.0045067 0.1164915 0.6046455
0.9349454 0.1993659 0.7410612
0.1977055 0.0014952 0.8965380
0.8461087 0.0667787 0.1771353
0.2343009 0.9283214 0.3819291
0.8073818 0.4358135 0.3812447
0.7653481 0.6157610 0.2693177
0.5828106 0.7038528 0.8270781
0.6771791 0.6407471 0.5959023
0.0920509 0.9451891 0.7148419
0.2728711 0.6923507 0.6208174
0.6588514 0.3789090 0.5731759
0.6600272 0.2016561 0.5080122
0.1203417 0.1055305 0.9110606
0.1245472 0.8932670 0.4697992
0.4549026 0.3398153 0.4162177
0.3772324 0.5649829 0.3355933
0.8219759 0.2335618 0.2484701
0.4805515 0.9350813 0.0239157
0.7234136 0.0060066 0.4048602
0.7642072 0.4460791 0.4294889
0.2532168 0.4750956 0.2282595
0.2835213 0.6532936 0.5994471
0.9295455 0.9688691 0.5223802
0.0875565 0.2999031 0.5178049
0.6731629 0.9461972 0.1551074
0.0366847 0.8700357 0.8051644
0.7657483 0.4686008 0.6777807
0.4114692 0.1920517 0.3908938
0.7870466 0.8018556 0.9611345
0.8876671 0.6820845 0.5209120
0.7239270 0.1832036 0.9230845
0.7125766 0.5944856 0.4340417
0.6335416 0.6176787 0.8988541
0.5707363 0.2133772 0.4413794
0.2429685 0.9049502 0.8435258
0.5558191 0.1963916 0.0435420
0.1341695 0.4432193 0.6742041
0.2239981 0.6845203 0.8619494
0.7572411 0.4255275 0.6457279
0.9883674 0.8854116 0.3381495
0.6854471 0.1632113 0.5573685
0.3565340 0.4381463 0.4388989
0.6632329 0.8459960 0.4685718
0.1465848 0.7541543 0.7516430
0.9538452 0.3940560 0.4638790
0.5405957 0.8921234 0.7042165
0.0212781 0.2073227 0.8538948
0.5854738 0.8739085 0.4113991
0.2104679 0.0041407 0.9960510
0.1363815 0.6429688 0.4897089
0.3801494 0.5372022 0.0782836
0.9700342 0.4927369 0.0152895
0.4193434 0.7572019 0.3120837
0.7450224 0.7673627 0.2391207
0.9679725 0.0278887 0.8636055
0.5126491 0.1533795 0.2583929
0.5935173 0.2784572 0.8384211
0.2195285 0.3840613 0.5068132
0.3397730 0.8241428 0.2638822
0.0889772 0.1547852 0.6269455
0.5635627 0.0632983 0.9930492
0.4794406 0.3194372 0.7291624
0.0242919 0.4342491 0.6644138
0.9621362 0.7616378 0.8851592
0.1189059 0.4297706 0.0317904
0.2719942 0.3842969 0.3438211
0.3737408 0.8030800 0.1895436
0.8244956 0.5419211 0.3387451
0.5522358 0.1614233 0.4954547
0.0219533 0.8629751 0.3315810
0.3440429 0.9951520 0.6134557
0.4176537 0.7906567 0.0676647
0.5705042 0.5207010 0.8612282
0.5862003 0.4852724 0.5202259
0.7818973 0.3473208 0.5577894
0.7073903 0.9955555 0.6936842
0.9618712 0.3990327 0.6087810
0.7452949 0.3484159 0.2691749
0.9728331 0.3485340 0.9999027
0.8522710 0.2160681 0.8282192
0.9836271 0.2768202 0.6644544
0.7695892 0.0832820 0.8193318
0.3083607 0.7063818 0.9501382
0.0351090 0.6117129 0.2924046
0.1146588 0.7118548 0.9790466
0.5127105 0.3463442 0.4490896
0.4146179 0.5319019 0.4091758
0.0803725 0.9794277 0.9967073
0.1741346 0.2410400 0.4369563
0.6987329 0.0313449 0.8354976
0.6384334 0.2692936 0.8708672
0.6612092 0.3169243 0.5478460
0.9792376 0.0484330 0.7084620
0.8494136 0.6923168 0.1400184
0.5971496 0.7859552 0.4185959
0.5824283 0.2534680 0.3127486
0.8085701 0.4894981 0.4488117
0.1228838 0.3744709 0.5207211
0.2310123 0.8079356 0.3837007
0.2384898 0.3082975 0.8244635
0.9041435 0.9602978 0.0151941
0.7538941 0.5254840 0.1245601
0.2465336 0.2816908 0.4042167
0.4707213 0.9367889 0.0583551
0.7091693 0.8541061 0.3572999
0.2492172 0.2213085 0.3008392
0.1452980 0.5516780 0.2503995
0.0272515 0.2326334 0.8206321
0.4173702 0.8835363 0.9436156
0.2433483 0.5599725 0.8810669
0.5814203 0.1680003 0.2479532
0.9876248 0.2993869 0.8677030
0.7950123 0.7419847 0.7219423
0.7899819 0.8474077 0.0623664
0.1678098 0.5055293 0.2124895
0.5332180 0.4931823 0.1267714
0.0859612 0.0116528 0.8250361
0.0817417 0.9615653 0.9838319
0.7456964 0.4503833 0.2757885
0.4124524 0.3452933 0.3962951
0.7261958 0.8925262 0.1577150
0.2426706 0.2098969 0.0453460
0.8542006 0.5112755 0.0670348
0.4462553 0.4506108 0.7779560
0.7613974 0.1344890 0.6268756
0.5096863 0.0134918 0.1477358
0.6668484 0.3670258 0.9636854
0.5017504 0.6882832 0.1336176
0.4794485 0.7341215 0.8334817
0.1996074 0.3969067 0.4735270
0.4403724 0.4754417 0.2959002
0.8087207 0.9130779 0.3490007
0.6378601 0.3807059 0.5787520
0.6955389 0.5015163 0.6745821
0.7571457 0.8432956 0.1888099
0.2163849 0.5143714 0.5096570
0.8077255 0.5173834 0.9000525
0.7776028 0.5063158 0.8263261
0.4758560 0.3417152 0.4334234
0.4562080 0.6505320 0.0521571
0.7295087 0.9682328 0.4588176
0.0687723 0.2012564 0.1032140
0.2563537 0.7939071 0.0010494
0.8735793 0.9395472 0.1850031
0.1735864 0.9657630 0.3603802
0.8117763 0.0090107 0.9907916
0.0164902 0.6075706 0.9284504
0.8312609 0.3104026 0.8220804
0.3930476 0.4998064 0.3632780
0.3547181 0.5820752 0.7820680
0.6994911 0.7680780 0.0142733
0.5316934 0.3527886 0.2086148
0.9208518 0.1968080 0.1844750
0.1788141 0.6580949 0.6117399
0.5056335 0.5868018 0.9405763
0.8612101 0.9059345 0.0541578
0.8974128 0.0313506 0.6476429
0.9308322 0.5024634 0.4193207
0.3317430 0.9161236 0.9259693
0.6191255 0.7144290 0.3391270
0.1381748 0.9790010 0.6570221
0.2743875 0.9770836 0.6089699
0.3305851 0.8958130 0.0779004
0.8041537 0.1595790 0.1076744
0.2589441 0.7148255 0.6080083
0.4212784 0.1590462 0.9237519
0.7662852 0.6862666 0.8129091
0.7742453 0.1124250 0.7733542
0.8387254 0.7467559 0.4822773
0.6864456 0.1000076 0.7643454
0.2622278 0.7851264 0.6352841
0.5090785 0.5360172 0.0747308
0.0408979 0.0148248 0.7755425
0.1384953 0.1228665 0.3850628
0.9777030 0.8859243 0.3132890
0.8197984 0.0850778 0.3920403
0.5792058 0.9862469 0.0487070
0.4124210 0.9196104 0.0276107
0.5990824 0.3993937 0.5602685
0.7033494 0.4066954 0.8920522
0.9557145 0.9850591 0.0547785
0.8368295 0.8783725 0.1454053
0.9414295 0.1271139 0.2073141
0.9555467 0.8307832 0.5765512
0.2878083 0.2527155 0.4031385
0.0089935 0.6363592 0.0515501
0.7738521 0.0701636 0.0102544
0.2846570 0.7726920 0.8326370
0.5073028 0.9382973 0.1145170
0.3322194 0.7403453 0.3233199
0.1453607 0.5783608 0.0625740
0.3730168 0.2538687 0.3318124
0.4851822 0.5357024 0.0843575
0.3155281 0.3836967 0.4033044
0.4800354 0.4258720 0.0740276
0.2193246 0.6442860 0.8287640
0.5114406 0.1481898 0.0704670
0.1558942 0.3840471 0.5652064
0.6642572 0.5243593 0.5652907
0.3522334 0.6655969 0.7268602
0.4021254 0.8149125 0.7439320
0.9047440 0.4667483 0.3452219
0.7772037 0.0375934 0.3838763
0.9771932 0.3422639 0.5123224
0.2497695 0.0769470 0.1109517
0.4352101 0.6190023 0.5457484
0.5186822 0.1116509 0.0402593
0.3586962 0.9424849 0.1798176
0.2692614 0.4831410 0.9142072
0.9469744 0.0013036 0.6478956
0.2361581 0.6544817 0.7428466
0.8871394 0.6834175 0.8472096
0.7844799 0.1607161 0.0436928
0.7387786 0.5259189 0.9978655
0.1648905 0.3852699 0.2877836
0.8786973 0.4836958 0.9136496
0.7071900 0.9988062 0.5997790
0.9761592 0.1734063 0.4416801
0.5783912 0.9782959 0.5678798
0.8652650 0.6285056 0.5124010
0.3914414 0.3686340 0.2952180
0.2113700 0.9625770 0.5364612
0.8658695 0.8849638 0.9422999
0.2381668 0.3377289 0.6331399
0.3220540 0.1439281 0.7598592
0.5503919 0.5365230 0.7104710
0.1147403 0.9219090 0.4798231
0.6918289 0.6003243 0.6052329
0.7099117 0.0887956 0.4967332
0.2102894 0.3896839 0.5117458
0.3539486 0.4067129 0.7308698
0.0433273 0.9565936 0.6039175
0.1635546 0.5572188 0.0809356
0.5014737 0.6886314 0.4197779
0.3141813 0.6737141 0.9352852
0.8736358 0.3853682 0.8634022
0.1150342 0.0587206 0.9831870
0.7629087 0.6149884 0.5587808
0.3088789 0.8990822 0.8527504
0.4817150 0.2203828 0.6763952
0.7261892 0.9955063 0.7903782
0.0912469 0.9899408 0.8545128
0.5825239 0.3309311 0.7329277
0.5966213 0.0957656 0.5635126
0.0201969 0.7886966 0.8235858
0.7301155 0.0914784 0.5880937
0.3913956 0.1283931 0.8920904
0.9422941 0.9222837 0.5312178
0.8644285 0.1978362 0.2954839
0.9087112 0.5903740 0.2260158
0.1300974 0.2283119 0.4960069
0.3034891 0.7344217 0.2713110
0.0784376 0.8982126 0.6638393
0.9740643 0.1819971 0.8703876
0.0171955 0.5378221 0.4797424
0.1261964 0.8151187 0.2708519
0.8984342 0.6994134 0.8523606
0.8664810 0.7917830 0.7364884
0.0040705 0.1434300 0.2071320
0.5774824 0.0033746 0.1271565
0.4849667 0.0410643 0.3187464
0.2199883 0.1744071 0.3166056
0.8812168 0.2314427 0.6491588
0.7339982 0.6752806 0.1887455
0.3498007 0.2721570 0.5386463
0.9690352 0.2178726 0.5523707
0.0654766 0.3755672 0.9541730
0.9084773 0.0952061 0.8525259
0.7157064 0.9179235 0.4608155
0.4225550 0.8961530 0.5361573
0.7613675 0.1776421 0.0684333
0.4404938 0.3270515 0.5118735
0.3443233 0.8625880 0.7356049
0.3839569 0.1258665 0.7098446
0.5410856 0.1519453 0.0347848
0.6167002 0.5162479 0.5754553
0.4158612 0.4687118 0.3914262
0.0877253 0.5353051 0.1216042
0.6734886 0.7494182 0.1679290
0.2015117 0.2407111 0.5985101
0.4064926 0.8875303 0.5479672
0.5256363 0.2184939 0.0908573
0.9247100 0.0996390 0.1302250
0.1953084 0.5768264 0.6390334
0.4316365 0.3948976 0.6410273
0.2620945 0.8004504 0.6400497
0.6028626 0.0288766 0.3453743
0.7688598 0.2059076 0.6444942
0.9747197 0.4405405 0.5179473
0.2120401 0.0070168 0.2366011
0.4718400 0.6042714 0.8359294
0.2900189 0.3290444 0.7206486
0.6642813 0.7145225 0.8772848
0.0886813 0.1244864 0.4963425
0.6126046 0.6540715 0.2300975
0.1360960 0.9214359 0.2400709
0.0178282 0.2829125 0.5171999
0.6333540 0.7392090 0.1455888
0.5078762 0.3201941 0.7246835
0.3594942 0.8111434 0.1916196
0.9947020 0.5214396 0.4238451
0.7256572 0.3788453 0.0354788
0.4408764 0.2877941 0.6612116
0.5267146 0.8300981 0.4892791
0.1553459 0.1486043 0.5726232
0.2648740 0.2115993 0.9417827
0.1392963 0.9160705 0.5362275
0.9369082 0.8390331 0.2988783
0.4701966 0.0852830 0.3666714
0.9267273 0.1009997 0.2456372
0.0427264 0.8608283 0.6835876
0.5893452 0.4656528 0.2600436
0.5858435 0.7027156 0.7929997
0.1624742 0.6253036 0.6788258
0.5811738 0.7277542 0.5177836
0.9546401 0.6501854 0.6280477
0.0131578 0.1435418 0.6010715
0.7669117 0.1442581 0.6368286
0.1543464 0.7632040 0.8212052
0.6206140 0.0679139 0.2794384
0.2695313 0.4678335 0.7800651
0.5783178 0.9919561 0.7082471
0.1413591 0.9791291 0.0586128
0.3328572 0.6372513 0.3904866
0.0221725 0.2964846 0.2418667
0.7761490 0.5925539 0.1439959
0.8726057 0.2129986 0.3196784
0.8747234 0.7652164 0.4208311
0.5192717 0.9791690 0.7108064
0.7157292 0.6557822 0.9882385
0.9240089 0.2982394 0.4451580
0.6356861 0.2369004 0.6472840
0.9032729 0.3062757 0.3679225
0.4499396 0.3863177 0.6433224
0.0519692 0.7767361 0.2853423
0.6220061 0.4238683 0.6112891
0.5689487 0.5175578 0.1603232
0.0075227 0.1069768 0.3848934
0.2570975 0.4847970 0.4708314
0.5153883 0.1327097 0.4974088
0.9504868 0.1719874 0.0155434
0.3388884 0.7084994 0.8607508
0.1092679 0.0312028 0.3101367
0.6220345 0.9204068 0.3304235
0.7793623 0.1275167 0.6409726
0.2499635 0.7611783 0.9121259
0.4414066 0.6872184 0.3540376
0.8490726 0.4101337 0.5840779
0.9864545 0.5576372 0.4528302
0.0960602 0.9496208 0.5248997
0.7007913 0.6545822 0.2374435
0.6370707 0.0966288 0.0572884
0.8409133 0.6007820 0.3013726
0.5268396 0.5579025 0.6777783
0.0001343 0.1444484 0.0931698
0.7530860 0.4523347 0.1983966
0.3744861 0.6694546 0.4612241
0.5458590 0.9375333 0.4003232
0.1032539 0.1071384 0.7247174
0.3124696 0.1150381 0.7781812
0.8888196 0.1023568 0.6165138
0.7404884 0.2458346 0.8366689
0.6840124 0.4445698 0.1657156
0.2578328 0.8294682 0.1678078
0.7046333 0.5709426 0.5607180
0.0163317 0.1227013 0.3098046
0.6303292 0.3814354 0.2564919
0.3838408 0.4631158 0.5945832
0.5597475 0.3680180 0.4254623
0.8062392 0.5890153 0.9704847
0.6024737 0.2832906 0.5131156
0.4729018 0.8529261 0.7374995
0.8805878 0.7178294 0.2532758
0.2728153 0.1638084 0.8790420
0.9000828 0.3235644 0.0232236
0.4742676 0.7883795 0.7029565
0.6756037 0.0210149 0.1019156
0.7292159 0.8185511 0.1822175
0.8163802 0.9512804 0.6016347
0.5517202 0.0329224 0.4139430
0.4669954 0.9534541 0.4408612
0.0119110 0.5671001 0.0681209
0.9920196 0.6596925 0.7190895
0.6934872 0.9409961 0.4049473
0.2789405 0.0787147 0.0228210
0.4771755 0.7437017 0.7392412
0.0028749 0.6166600 0.8317822
0.8669497 0.7696249 0.4188807
0.7039576 0.7015335 0.0642034
0.0388884 0.3461326 0.6433557
0.3809663 0.6449897 0.7615127
0.7713776 0.2831833 0.9717372
0.5537946 0.6279036 0.6352085
0.6733462 0.1540079 0.6745798
0.4315375 0.9686897 0.7141502
0.9739901 0.9910602 0.8340000
0.5861931 0.6006760 0.4696852
0.3696746 0.4187407 0.9134927
0.6463048 0.1699272 0.0372606
0.4391512 0.4408663 0.0658247
0.2267571 0.3314005 0.3767329
0.6249037 0.1559912 0.8217871
0.4971113 0.0691254 0.0995868
0.9431736 0.0319852 0.6489832
0.1789871 0.6542052 0.9875937
0.9182041 0.4372565 0.4315035
0.2894399 0.4404140 0.9579237
0.0378597 0.4788354 0.8957259
0.1066111 0.1167207 0.8147709
0.2828262 0.7979361 0.3018072
0.0323065 0.8198341 0.3318196
0.4613056 0.0598517 0.6508330
0.8289529 0.2197560 0.9332063
0.6335951 0.5481975 0.2058511
0.8760684 0.4239490 0.0426617
0.9257784 0.3688475 0.2945900
0.0580002 0.0330958 0.0431038
0.8749608 0.8678801 0.4697320
0.0812475 0.1392530 0.9475227
0.5607112 0.7955917 0.0768320
0.0653191 0.7771265 0.1158088
0.8207015 0.9344493 0.4328311
0.1151309 0.7176222 0.4456862
0.5014113 0.8879866 0.5398563
0.1381967 0.3725114 0.8496615
0.5114459 0.0807469 0.5065435
0.0350951 0.8793068 0.2481148
0.7291781 0.9946429 0.8963648
0.5286291 0.3241472 0.6987477
0.5466113 0.9088022 0.2421753
0.6934551 0.1524854 0.4050922
0.7773906 0.3643499 0.2836243
0.3529023 0.3736541 0.0079771
0.1431230 0.7405762 0.6927873
0.6524824 0.1368535 0.1158321
0.4895520 0.4839042 0.1257995
0.9658229 0.8173442 0.8722169
0.1721920 0.6565364 0.8132308
0.3235148 0.9853468 0.0950747
0.7932290 0.1446112 0.2513133
0.1895185 0.1157397 0.6708926
0.2429592 0.7992530 0.7694448
0.9574216 0.7746918 0.9900308
0.5573258 0.0319905 0.3320085
0.3940799 0.9663157 0.4211298
0.2701712 0.7997463 0.9197824
0.0466748 0.9809720 0.7226808
0.9957521 0.6485575 0.0077848
0.6783248 0.2267303 0.9884642
0.9320840 0.8607582 0.7086606
0.2533936 0.9266405 0.8226151
0.6339284 0.1709527 0.1992473
0.5669193 0.5932997 0.4080113
0.8135186 0.6783773 0.2580555
0.0300441 0.6067876 0.3293980
0.8898360 0.2342046 0.5486333
0.1979289 0.9667290 0.6429395
0.7530834 0.8908563 0.4538818
0.5467404 0.4496391 0.6190781
0.3347539 0.8219636 0.3652176
0.7713830 0.0166988 0.3636849
0.4798943 0.9010516 0.7223662
0.7338043 0.6366445 0.9007485
0.7249197 0.6314746 0.9208560
0.7641952 0.0147886 0.8686194
0.1881925 0.7483751 0.4133822
0.3923049 0.1538541 0.4288644
0.9994439 0.8272905 0.7367414
0.6429374 0.2146757 0.0631685
0.9327208 0.9085471 0.0022189
0.9110860 0.7488606 0.0987453
0.1542225 0.1763697 0.2566081
0.9028238 0.4211799 0.5384772
0.4243436 0.4640973 0.2508066
0.3151210 0.2524494 0.2848974
0.6079208 0.0233136 0.9372869
0.5137408 0.5021229 0.4218779
0.7310058 0.7613046 0.7223698
0.9653965 0.4144969 0.0856434
0.7983360 0.7124728 0.0254503
0.4928203 0.8097742 0.9482694
0.3496808 0.4717499 0.4449045
0.7440909 0.7034542 0.4749025
0.1850183 0.5871410 0.0249900
0.3557469 0.3078618 0.0666850
